# .PCD v0.7 - Point Cloud Data file format
VERSION 0.7
FIELDS x y z
SIZE 4 4 4
TYPE F F F
COUNT 1 1 1
WIDTH 1690
HEIGHT 1
VIEWPOINT 0 0 0 1 0 0 0
POINTS 1690
DATA ascii
-2.9489999 -4.6490002 0.40099999
-2.9489999 -4.6490002 0.45100001
-2.9489999 -4.6490002 0.50099999
-2.9489999 -4.6490002 0.551
-2.9489999 -4.6490002 0.60100001
-2.9489999 -4.6490002 0.65100002
-2.9489999 -4.6490002 0.70099998
-2.9489999 -4.6490002 0.75099999
-2.9489999 -4.6490002 0.801
-2.9489999 -4.6490002 0.85100001
-2.9489999 -4.6490002 0.90100002
-2.9489999 -4.6490002 0.95099998
-2.9489999 -4.6490002 1.001
-2.9489999 -4.6490002 1.051
-2.9489999 -4.6490002 1.101
-2.9489999 -4.6490002 1.151
-2.9489999 -4.6490002 1.201
-2.9489999 -4.6490002 1.251
-2.9489999 -4.6490002 1.301
-2.9489999 -4.6490002 1.351
-2.9489999 -4.6490002 1.401
-2.9489999 -4.6490002 1.451
-2.9489999 -4.6490002 1.501
-2.9489999 -4.6490002 1.551
-2.9489999 -4.6490002 1.601
-2.9489999 -4.6490002 1.651
-2.9489999 -4.6490002 1.701
-2.9489999 -4.6490002 1.751
-2.9489999 -4.6490002 1.801
-2.9489999 -4.6490002 1.851
-2.9489999 -4.6490002 1.901
-2.9489999 -4.6490002 1.951
-2.9489999 -4.6490002 2.0009999
-2.9489999 -4.6490002 2.0510001
-2.9489999 -4.6490002 2.1010001
-2.9489999 -4.6490002 2.151
-2.9489999 -4.6490002 2.201
-2.9489999 -4.6490002 2.2509999
-2.9489999 -4.6490002 2.3010001
-2.9489999 -4.6490002 2.3510001
-2.9489999 -4.6490002 2.401
-2.9489999 -4.6490002 2.451
-2.9489999 -4.6490002 2.5009999
-2.9489999 -4.6490002 2.5510001
-2.9489999 -4.6490002 2.6010001
-2.9489999 -4.6490002 2.651
-2.9489999 -4.6490002 2.701
-2.9489999 -4.6490002 2.7509999
-2.9489999 -4.6490002 2.8010001
-2.9489999 -4.6490002 2.8510001
-2.9489999 -4.6490002 2.901
-2.9489999 -4.6490002 2.951
-2.9489999 -4.5489998 0.001
-2.9489999 -4.5489998 0.050999999
-2.9489999 -4.5489998 0.101
-2.9489999 -4.5489998 0.15099999
-2.9489999 -4.5489998 0.20100001
-2.9489999 -4.5489998 0.25099999
-2.9489999 -4.5489998 0.301
-2.9489999 -4.5489998 0.35100001
-2.9489999 -4.5489998 0.40099999
-2.9489999 -4.5489998 0.45100001
-2.9489999 -4.5489998 0.50099999
-2.9489999 -4.5489998 0.551
-2.9489999 -4.5489998 0.60100001
-2.9489999 -4.5489998 0.65100002
-2.9489999 -4.5489998 0.70099998
-2.9489999 -4.5489998 0.75099999
-2.9489999 -4.5489998 0.801
-2.9489999 -4.5489998 0.85100001
-2.9489999 -4.5489998 0.90100002
-2.9489999 -4.5489998 0.95099998
-2.9489999 -4.5489998 1.001
-2.9489999 -4.5489998 1.051
-2.9489999 -4.5489998 1.101
-2.9489999 -4.5489998 1.151
-2.9489999 -4.5489998 1.201
-2.9489999 -4.5489998 1.251
-2.9489999 -4.5489998 1.301
-2.9489999 -4.5489998 1.351
-2.9489999 -4.5489998 1.401
-2.9489999 -4.5489998 1.451
-2.9489999 -4.5489998 1.501
-2.9489999 -4.5489998 1.551
-2.9489999 -4.5489998 1.601
-2.9489999 -4.5489998 1.651
-2.9489999 -4.5489998 1.701
-2.9489999 -4.5489998 1.751
-2.9489999 -4.5489998 1.801
-2.9489999 -4.5489998 1.851
-2.9489999 -4.5489998 1.901
-2.9489999 -4.5489998 1.951
-2.9489999 -4.4489999 0.001
-2.9489999 -4.4489999 0.050999999
-2.9489999 -4.4489999 0.101
-2.9489999 -4.4489999 0.15099999
-2.9489999 -4.4489999 0.20100001
-2.9489999 -4.4489999 0.25099999
-2.9489999 -4.4489999 0.301
-2.9489999 -4.4489999 0.35100001
-2.9489999 -4.4489999 0.40099999
-2.9489999 -4.4489999 0.45100001
-2.9489999 -4.4489999 0.50099999
-2.9489999 -4.4489999 0.551
-2.9489999 -4.4489999 0.60100001
-2.9489999 -4.4489999 0.65100002
-2.9489999 -4.4489999 0.70099998
-2.9489999 -4.4489999 0.75099999
-2.9489999 -4.4489999 0.801
-2.9489999 -4.4489999 0.85100001
-2.9489999 -4.4489999 0.90100002
-2.9489999 -4.4489999 0.95099998
-2.9489999 -4.4489999 1.001
-2.9489999 -4.4489999 1.051
-2.9489999 -4.4489999 1.101
-2.9489999 -4.4489999 1.151
-2.9489999 -4.4489999 1.201
-2.9489999 -4.4489999 1.251
-2.9489999 -4.4489999 1.301
-2.9489999 -4.4489999 1.351
-2.9489999 -4.4489999 1.401
-2.9489999 -4.4489999 1.451
-2.9489999 -4.4489999 1.501
-2.9489999 -4.4489999 1.551
-2.9489999 -4.4489999 1.601
-2.9489999 -4.4489999 1.651
-2.9489999 -4.4489999 1.701
-2.9489999 -4.4489999 1.751
-2.9489999 -4.4489999 1.801
-2.9489999 -4.4489999 1.851
-2.9489999 -4.4489999 1.901
-2.9489999 -4.4489999 1.951
-2.9489999 -4.4489999 2.0009999
-2.9489999 -4.4489999 2.0510001
-2.9489999 -4.4489999 2.1010001
-2.9489999 -4.4489999 2.151
-2.9489999 -4.4489999 2.201
-2.9489999 -4.4489999 2.2509999
-2.9489999 -4.4489999 2.3010001
-2.9489999 -4.4489999 2.3510001
-2.9489999 -4.4489999 2.401
-2.9489999 -4.4489999 2.451
-2.9489999 -4.4489999 2.5009999
-2.9489999 -4.4489999 2.5510001
-2.9489999 -4.4489999 2.6010001
-2.9489999 -4.4489999 2.651
-2.9489999 -4.349 0.001
-2.9489999 -4.349 0.050999999
-2.9489999 -4.349 0.101
-2.9489999 -4.349 0.15099999
-2.9489999 -4.349 0.20100001
-2.9489999 -4.349 0.25099999
-2.9489999 -4.349 0.301
-2.9489999 -4.349 0.35100001
-2.9489999 -4.349 0.40099999
-2.9489999 -4.349 0.45100001
-2.9489999 -4.349 0.50099999
-2.9489999 -4.349 0.551
-2.9489999 -4.349 0.60100001
-2.9489999 -4.349 0.65100002
-2.9489999 -4.349 0.70099998
-2.9489999 -4.349 0.75099999
-2.9489999 -4.349 0.801
-2.9489999 -4.349 0.85100001
-2.9489999 -4.349 0.90100002
-2.9489999 -4.349 0.95099998
-2.9489999 -4.349 1.001
-2.9489999 -4.349 1.051
-2.9489999 -4.349 1.101
-2.9489999 -4.349 1.151
-2.9489999 -4.349 1.201
-2.9489999 -4.349 1.251
-2.9489999 -4.349 1.301
-2.9489999 -4.349 1.351
-2.9489999 -4.349 1.401
-2.9489999 -4.349 1.451
-2.9489999 -4.349 1.501
-2.9489999 -4.349 1.551
-2.9489999 -4.349 1.601
-2.9489999 -4.349 1.651
-2.9489999 -4.349 1.701
-2.9489999 -4.349 1.751
-2.9489999 -4.2490001 0.001
-2.9489999 -4.2490001 0.050999999
-2.9489999 -4.2490001 0.101
-2.9489999 -4.2490001 0.15099999
-2.9489999 -4.2490001 0.20100001
-2.9489999 -4.2490001 0.25099999
-2.9489999 -4.2490001 0.301
-2.9489999 -4.2490001 0.35100001
-2.9489999 -4.2490001 0.40099999
-2.9489999 -4.2490001 0.45100001
-2.9489999 -4.2490001 0.50099999
-2.9489999 -4.2490001 0.551
-2.9489999 -4.2490001 0.60100001
-2.9489999 -4.2490001 0.65100002
-2.9489999 -4.2490001 0.70099998
-2.9489999 -4.2490001 0.75099999
-2.9489999 -4.2490001 0.801
-2.9489999 -4.2490001 0.85100001
-2.9489999 -4.2490001 0.90100002
-2.9489999 -4.2490001 0.95099998
-2.9489999 -4.2490001 1.001
-2.9489999 -4.2490001 1.051
-2.9489999 -4.2490001 1.101
-2.9489999 -4.2490001 1.151
-2.9489999 -4.2490001 1.201
-2.9489999 -4.2490001 1.251
-2.9489999 -4.2490001 1.301
-2.9489999 -4.2490001 1.351
-2.9489999 -4.1490002 0.001
-2.9489999 -4.1490002 0.050999999
-2.9489999 -4.1490002 0.101
-2.9489999 -4.1490002 0.15099999
-2.9489999 -4.1490002 0.20100001
-2.9489999 -4.1490002 0.25099999
-2.9489999 -4.1490002 0.301
-2.9489999 -4.1490002 0.35100001
-2.9489999 -4.1490002 0.40099999
-2.9489999 -4.1490002 0.45100001
-2.9489999 -4.1490002 0.50099999
-2.9489999 -4.1490002 0.551
-2.9489999 -4.1490002 0.60100001
-2.9489999 -4.1490002 0.65100002
-2.9489999 -4.1490002 0.70099998
-2.9489999 -4.1490002 0.75099999
-2.9489999 -4.1490002 0.801
-2.9489999 -4.1490002 0.85100001
-2.9489999 -4.1490002 0.90100002
-2.9489999 -4.1490002 0.95099998
-2.9489999 -4.1490002 1.001
-2.9489999 -4.1490002 1.051
-2.9489999 -4.1490002 1.101
-2.9489999 -4.1490002 1.151
-2.9489999 -4.1490002 1.201
-2.9489999 -4.1490002 1.251
-2.9489999 -4.1490002 1.301
-2.9489999 -4.1490002 1.351
-2.9489999 -4.1490002 1.401
-2.9489999 -4.1490002 1.451
-2.9489999 -4.1490002 1.501
-2.9489999 -4.1490002 1.551
-2.9489999 -4.0489998 0.001
-2.9489999 -4.0489998 0.050999999
-2.9489999 -4.0489998 0.101
-2.9489999 -4.0489998 0.15099999
-2.9489999 -4.0489998 0.20100001
-2.9489999 -4.0489998 0.25099999
-2.9489999 -4.0489998 0.301
-2.9489999 -4.0489998 0.35100001
-2.9489999 -4.0489998 0.40099999
-2.9489999 -4.0489998 0.45100001
-2.9489999 -4.0489998 0.50099999
-2.9489999 -4.0489998 0.551
-2.9489999 -4.0489998 0.60100001
-2.9489999 -4.0489998 0.65100002
-2.9489999 -4.0489998 0.70099998
-2.9489999 -4.0489998 0.75099999
-2.9489999 -4.0489998 0.801
-2.9489999 -4.0489998 0.85100001
-2.9489999 -4.0489998 0.90100002
-2.9489999 -4.0489998 0.95099998
-2.9489999 -4.0489998 1.001
-2.9489999 -4.0489998 1.051
-2.849 -4.6490002 0.001
-2.849 -4.6490002 0.050999999
-2.849 -4.6490002 0.101
-2.849 -4.6490002 0.15099999
-2.849 -4.6490002 0.20100001
-2.849 -4.6490002 0.25099999
-2.849 -4.6490002 0.301
-2.849 -4.6490002 0.35100001
-2.849 -4.6490002 0.40099999
-2.849 -4.6490002 0.45100001
-2.849 -4.6490002 0.50099999
-2.849 -4.6490002 0.551
-2.849 -4.6490002 0.60100001
-2.849 -4.6490002 0.65100002
-2.849 -4.6490002 0.70099998
-2.849 -4.6490002 0.75099999
-2.849 -4.6490002 0.801
-2.849 -4.6490002 0.85100001
-2.849 -4.6490002 0.90100002
-2.849 -4.6490002 0.95099998
-2.849 -4.6490002 1.001
-2.849 -4.6490002 1.051
-2.849 -4.6490002 1.101
-2.849 -4.6490002 1.151
-2.849 -4.6490002 1.201
-2.849 -4.6490002 1.251
-2.849 -4.6490002 1.301
-2.849 -4.6490002 1.351
-2.849 -4.6490002 1.401
-2.849 -4.6490002 1.451
-2.849 -4.6490002 1.501
-2.849 -4.6490002 1.551
-2.849 -4.6490002 1.601
-2.849 -4.6490002 1.651
-2.849 -4.6490002 1.701
-2.849 -4.6490002 1.751
-2.849 -4.6490002 1.801
-2.849 -4.6490002 1.851
-2.849 -4.6490002 1.901
-2.849 -4.6490002 1.951
-2.849 -4.6490002 2.0009999
-2.849 -4.6490002 2.0510001
-2.849 -4.6490002 2.1010001
-2.849 -4.6490002 2.151
-2.849 -4.6490002 2.201
-2.849 -4.6490002 2.2509999
-2.849 -4.6490002 2.3010001
-2.849 -4.6490002 2.3510001
-2.849 -4.5489998 0.001
-2.849 -4.5489998 0.050999999
-2.849 -4.5489998 0.101
-2.849 -4.5489998 0.15099999
-2.849 -4.5489998 0.20100001
-2.849 -4.5489998 0.25099999
-2.849 -4.5489998 0.301
-2.849 -4.5489998 0.35100001
-2.849 -4.5489998 0.40099999
-2.849 -4.5489998 0.45100001
-2.849 -4.5489998 0.50099999
-2.849 -4.5489998 0.551
-2.849 -4.5489998 0.60100001
-2.849 -4.5489998 0.65100002
-2.849 -4.5489998 0.70099998
-2.849 -4.5489998 0.75099999
-2.849 -4.5489998 0.801
-2.849 -4.5489998 0.85100001
-2.849 -4.5489998 0.90100002
-2.849 -4.5489998 0.95099998
-2.849 -4.5489998 1.001
-2.849 -4.5489998 1.051
-2.849 -4.5489998 1.101
-2.849 -4.5489998 1.151
-2.849 -4.5489998 1.201
-2.849 -4.5489998 1.251
-2.849 -4.5489998 1.301
-2.849 -4.5489998 1.351
-2.849 -4.5489998 1.401
-2.849 -4.5489998 1.451
-2.849 -4.5489998 1.501
-2.849 -4.5489998 1.551
-2.849 -4.5489998 1.601
-2.849 -4.5489998 1.651
-2.849 -4.5489998 1.701
-2.849 -4.5489998 1.751
-2.849 -4.5489998 1.801
-2.849 -4.5489998 1.851
-2.849 -4.5489998 1.901
-2.849 -4.5489998 1.951
-2.849 -4.5489998 2.0009999
-2.849 -4.5489998 2.0510001
-2.849 -4.5489998 2.1010001
-2.849 -4.5489998 2.151
-2.849 -4.5489998 2.201
-2.849 -4.5489998 2.2509999
-2.849 -4.5489998 2.3010001
-2.849 -4.5489998 2.3510001
-2.849 -4.5489998 2.401
-2.849 -4.5489998 2.451
-2.849 -4.5489998 2.5009999
-2.849 -4.5489998 2.5510001
-2.849 -4.5489998 2.6010001
-2.849 -4.5489998 2.651
-2.849 -4.5489998 2.701
-2.849 -4.5489998 2.7509999
-2.849 -4.4489999 0.001
-2.849 -4.4489999 0.050999999
-2.849 -4.4489999 0.101
-2.849 -4.4489999 0.15099999
-2.849 -4.4489999 0.20100001
-2.849 -4.4489999 0.25099999
-2.849 -4.4489999 0.301
-2.849 -4.4489999 0.35100001
-2.849 -4.4489999 0.40099999
-2.849 -4.4489999 0.45100001
-2.849 -4.4489999 0.50099999
-2.849 -4.4489999 0.551
-2.849 -4.4489999 0.60100001
-2.849 -4.4489999 0.65100002
-2.849 -4.4489999 0.70099998
-2.849 -4.4489999 0.75099999
-2.849 -4.4489999 0.801
-2.849 -4.4489999 0.85100001
-2.849 -4.4489999 0.90100002
-2.849 -4.4489999 0.95099998
-2.849 -4.4489999 1.001
-2.849 -4.4489999 1.051
-2.849 -4.4489999 1.101
-2.849 -4.4489999 1.151
-2.849 -4.4489999 1.201
-2.849 -4.4489999 1.251
-2.849 -4.349 0.001
-2.849 -4.349 0.050999999
-2.849 -4.349 0.101
-2.849 -4.349 0.15099999
-2.849 -4.349 0.20100001
-2.849 -4.349 0.25099999
-2.849 -4.349 0.301
-2.849 -4.349 0.35100001
-2.849 -4.349 0.40099999
-2.849 -4.349 0.45100001
-2.849 -4.349 0.50099999
-2.849 -4.349 0.551
-2.849 -4.349 0.60100001
-2.849 -4.349 0.65100002
-2.849 -4.349 0.70099998
-2.849 -4.349 0.75099999
-2.849 -4.349 0.801
-2.849 -4.349 0.85100001
-2.849 -4.349 0.90100002
-2.849 -4.349 0.95099998
-2.849 -4.349 1.001
-2.849 -4.349 1.051
-2.849 -4.349 1.101
-2.849 -4.349 1.151
-2.849 -4.2490001 0.001
-2.849 -4.2490001 0.050999999
-2.849 -4.2490001 0.101
-2.849 -4.2490001 0.15099999
-2.849 -4.2490001 0.20100001
-2.849 -4.2490001 0.25099999
-2.849 -4.2490001 0.301
-2.849 -4.2490001 0.35100001
-2.849 -4.2490001 0.40099999
-2.849 -4.2490001 0.45100001
-2.849 -4.2490001 0.50099999
-2.849 -4.2490001 0.551
-2.849 -4.2490001 0.60100001
-2.849 -4.2490001 0.65100002
-2.849 -4.2490001 0.70099998
-2.849 -4.2490001 0.75099999
-2.849 -4.2490001 0.801
-2.849 -4.2490001 0.85100001
-2.849 -4.2490001 0.90100002
-2.849 -4.2490001 0.95099998
-2.849 -4.2490001 1.001
-2.849 -4.2490001 1.051
-2.849 -4.2490001 1.101
-2.849 -4.2490001 1.151
-2.849 -4.2490001 1.201
-2.849 -4.2490001 1.251
-2.849 -4.2490001 1.301
-2.849 -4.2490001 1.351
-2.849 -4.2490001 1.401
-2.849 -4.2490001 1.451
-2.849 -4.2490001 1.501
-2.849 -4.2490001 1.551
-2.849 -4.1490002 0.001
-2.849 -4.1490002 0.050999999
-2.849 -4.1490002 0.101
-2.849 -4.1490002 0.15099999
-2.849 -4.1490002 0.20100001
-2.849 -4.1490002 0.25099999
-2.849 -4.1490002 0.301
-2.849 -4.1490002 0.35100001
-2.849 -4.1490002 0.40099999
-2.849 -4.1490002 0.45100001
-2.849 -4.1490002 0.50099999
-2.849 -4.1490002 0.551
-2.849 -4.1490002 0.60100001
-2.849 -4.1490002 0.65100002
-2.849 -4.1490002 0.70099998
-2.849 -4.1490002 0.75099999
-2.849 -4.1490002 0.801
-2.849 -4.1490002 0.85100001
-2.849 -4.1490002 0.90100002
-2.849 -4.1490002 0.95099998
-2.849 -4.1490002 1.001
-2.849 -4.1490002 1.051
-2.849 -4.1490002 1.101
-2.849 -4.1490002 1.151
-2.849 -4.1490002 1.201
-2.849 -4.1490002 1.251
-2.849 -4.1490002 1.301
-2.849 -4.1490002 1.351
-2.849 -4.1490002 1.401
-2.849 -4.1490002 1.451
-2.849 -4.1490002 1.501
-2.849 -4.1490002 1.551
-2.849 -4.1490002 1.601
-2.849 -4.1490002 1.651
-2.849 -4.1490002 1.701
-2.849 -4.1490002 1.751
-2.849 -4.0489998 0.001
-2.849 -4.0489998 0.050999999
-2.849 -4.0489998 0.101
-2.849 -4.0489998 0.15099999
-2.849 -4.0489998 0.20100001
-2.849 -4.0489998 0.25099999
-2.849 -4.0489998 0.301
-2.849 -4.0489998 0.35100001
-2.849 -4.0489998 0.40099999
-2.849 -4.0489998 0.45100001
-2.849 -4.0489998 0.50099999
-2.849 -4.0489998 0.551
-2.849 -4.0489998 0.60100001
-2.849 -4.0489998 0.65100002
-2.849 -4.0489998 0.70099998
-2.849 -4.0489998 0.75099999
-2.849 -4.0489998 0.801
-2.849 -4.0489998 0.85100001
-2.849 -4.0489998 0.90100002
-2.849 -4.0489998 0.95099998
-2.849 -4.0489998 1.001
-2.849 -4.0489998 1.051
-2.849 -4.0489998 1.101
-2.849 -4.0489998 1.151
-2.849 -4.0489998 1.201
-2.849 -4.0489998 1.251
-2.849 -4.0489998 1.301
-2.849 -4.0489998 1.351
-2.849 -4.0489998 1.401
-2.849 -4.0489998 1.451
-2.849 -4.0489998 1.501
-2.849 -4.0489998 1.551
-2.849 -4.0489998 1.601
-2.849 -4.0489998 1.651
-2.849 -4.0489998 1.701
-2.849 -4.0489998 1.751
-2.849 -4.0489998 1.801
-2.849 -4.0489998 1.851
-2.849 -4.0489998 1.901
-2.849 -4.0489998 1.951
-2.849 -4.0489998 2.0009999
-2.849 -4.0489998 2.0510001
-2.849 -4.0489998 2.1010001
-2.849 -4.0489998 2.151
-2.849 -4.0489998 2.201
-2.849 -4.0489998 2.2509999
-2.849 -4.0489998 2.3010001
-2.849 -4.0489998 2.3510001
-2.849 -4.0489998 2.401
-2.849 -4.0489998 2.451
-2.849 -4.0489998 2.5009999
-2.849 -4.0489998 2.5510001
-2.849 -4.0489998 2.6010001
-2.849 -4.0489998 2.651
-2.7490001 -4.6490002 0.001
-2.7490001 -4.6490002 0.050999999
-2.7490001 -4.6490002 0.101
-2.7490001 -4.6490002 0.15099999
-2.7490001 -4.6490002 0.20100001
-2.7490001 -4.6490002 0.25099999
-2.7490001 -4.6490002 0.301
-2.7490001 -4.6490002 0.35100001
-2.7490001 -4.6490002 0.40099999
-2.7490001 -4.6490002 0.45100001
-2.7490001 -4.6490002 0.50099999
-2.7490001 -4.6490002 0.551
-2.7490001 -4.6490002 0.60100001
-2.7490001 -4.6490002 0.65100002
-2.7490001 -4.6490002 0.70099998
-2.7490001 -4.6490002 0.75099999
-2.7490001 -4.6490002 0.801
-2.7490001 -4.6490002 0.85100001
-2.7490001 -4.6490002 0.90100002
-2.7490001 -4.6490002 0.95099998
-2.7490001 -4.6490002 1.001
-2.7490001 -4.6490002 1.051
-2.7490001 -4.6490002 1.101
-2.7490001 -4.6490002 1.151
-2.7490001 -4.6490002 1.201
-2.7490001 -4.6490002 1.251
-2.7490001 -4.6490002 1.301
-2.7490001 -4.6490002 1.351
-2.7490001 -4.6490002 1.401
-2.7490001 -4.6490002 1.451
-2.7490001 -4.6490002 1.501
-2.7490001 -4.6490002 1.551
-2.7490001 -4.6490002 1.601
-2.7490001 -4.6490002 1.651
-2.7490001 -4.6490002 1.701
-2.7490001 -4.6490002 1.751
-2.7490001 -4.6490002 1.801
-2.7490001 -4.6490002 1.851
-2.7490001 -4.6490002 1.901
-2.7490001 -4.6490002 1.951
-2.7490001 -4.6490002 2.0009999
-2.7490001 -4.6490002 2.0510001
-2.7490001 -4.6490002 2.1010001
-2.7490001 -4.6490002 2.151
-2.7490001 -4.6490002 2.201
-2.7490001 -4.6490002 2.2509999
-2.7490001 -4.6490002 2.3010001
-2.7490001 -4.6490002 2.3510001
-2.7490001 -4.6490002 2.401
-2.7490001 -4.6490002 2.451
-2.7490001 -4.6490002 2.5009999
-2.7490001 -4.6490002 2.5510001
-2.7490001 -4.5489998 0.001
-2.7490001 -4.5489998 0.050999999
-2.7490001 -4.5489998 0.101
-2.7490001 -4.5489998 0.15099999
-2.7490001 -4.5489998 0.20100001
-2.7490001 -4.5489998 0.25099999
-2.7490001 -4.5489998 0.301
-2.7490001 -4.5489998 0.35100001
-2.7490001 -4.5489998 0.40099999
-2.7490001 -4.5489998 0.45100001
-2.7490001 -4.5489998 0.50099999
-2.7490001 -4.5489998 0.551
-2.7490001 -4.5489998 0.60100001
-2.7490001 -4.5489998 0.65100002
-2.7490001 -4.5489998 0.70099998
-2.7490001 -4.5489998 0.75099999
-2.7490001 -4.5489998 0.801
-2.7490001 -4.5489998 0.85100001
-2.7490001 -4.5489998 0.90100002
-2.7490001 -4.5489998 0.95099998
-2.7490001 -4.5489998 1.001
-2.7490001 -4.5489998 1.051
-2.7490001 -4.5489998 1.101
-2.7490001 -4.5489998 1.151
-2.7490001 -4.5489998 1.201
-2.7490001 -4.5489998 1.251
-2.7490001 -4.5489998 1.301
-2.7490001 -4.5489998 1.351
-2.7490001 -4.4489999 0.001
-2.7490001 -4.4489999 0.050999999
-2.7490001 -4.4489999 0.101
-2.7490001 -4.4489999 0.15099999
-2.7490001 -4.4489999 0.20100001
-2.7490001 -4.4489999 0.25099999
-2.7490001 -4.4489999 0.301
-2.7490001 -4.4489999 0.35100001
-2.7490001 -4.4489999 0.40099999
-2.7490001 -4.4489999 0.45100001
-2.7490001 -4.4489999 0.50099999
-2.7490001 -4.4489999 0.551
-2.7490001 -4.4489999 0.60100001
-2.7490001 -4.4489999 0.65100002
-2.7490001 -4.4489999 0.70099998
-2.7490001 -4.4489999 0.75099999
-2.7490001 -4.4489999 0.801
-2.7490001 -4.4489999 0.85100001
-2.7490001 -4.4489999 0.90100002
-2.7490001 -4.4489999 0.95099998
-2.7490001 -4.4489999 1.001
-2.7490001 -4.4489999 1.051
-2.7490001 -4.349 0.001
-2.7490001 -4.349 0.050999999
-2.7490001 -4.349 0.101
-2.7490001 -4.349 0.15099999
-2.7490001 -4.349 0.20100001
-2.7490001 -4.349 0.25099999
-2.7490001 -4.349 0.301
-2.7490001 -4.349 0.35100001
-2.7490001 -4.349 0.40099999
-2.7490001 -4.349 0.45100001
-2.7490001 -4.349 0.50099999
-2.7490001 -4.349 0.551
-2.7490001 -4.349 0.60100001
-2.7490001 -4.349 0.65100002
-2.7490001 -4.349 0.70099998
-2.7490001 -4.349 0.75099999
-2.7490001 -4.349 0.801
-2.7490001 -4.349 0.85100001
-2.7490001 -4.349 0.90100002
-2.7490001 -4.349 0.95099998
-2.7490001 -4.349 1.001
-2.7490001 -4.349 1.051
-2.7490001 -4.349 1.101
-2.7490001 -4.349 1.151
-2.7490001 -4.349 1.201
-2.7490001 -4.349 1.251
-2.7490001 -4.349 1.301
-2.7490001 -4.349 1.351
-2.7490001 -4.349 1.401
-2.7490001 -4.349 1.451
-2.7490001 -4.349 1.501
-2.7490001 -4.349 1.551
-2.7490001 -4.2490001 0.001
-2.7490001 -4.2490001 0.050999999
-2.7490001 -4.2490001 0.101
-2.7490001 -4.2490001 0.15099999
-2.7490001 -4.2490001 0.20100001
-2.7490001 -4.2490001 0.25099999
-2.7490001 -4.2490001 0.301
-2.7490001 -4.2490001 0.35100001
-2.7490001 -4.2490001 0.40099999
-2.7490001 -4.2490001 0.45100001
-2.7490001 -4.2490001 0.50099999
-2.7490001 -4.2490001 0.551
-2.7490001 -4.2490001 0.60100001
-2.7490001 -4.2490001 0.65100002
-2.7490001 -4.2490001 0.70099998
-2.7490001 -4.2490001 0.75099999
-2.7490001 -4.2490001 0.801
-2.7490001 -4.2490001 0.85100001
-2.7490001 -4.2490001 0.90100002
-2.7490001 -4.2490001 0.95099998
-2.7490001 -4.2490001 1.001
-2.7490001 -4.2490001 1.051
-2.7490001 -4.2490001 1.101
-2.7490001 -4.2490001 1.151
-2.7490001 -4.2490001 1.201
-2.7490001 -4.2490001 1.251
-2.7490001 -4.2490001 1.301
-2.7490001 -4.2490001 1.351
-2.7490001 -4.2490001 1.401
-2.7490001 -4.2490001 1.451
-2.7490001 -4.2490001 1.501
-2.7490001 -4.2490001 1.551
-2.7490001 -4.2490001 1.601
-2.7490001 -4.2490001 1.651
-2.7490001 -4.2490001 1.701
-2.7490001 -4.2490001 1.751
-2.7490001 -4.2490001 1.801
-2.7490001 -4.2490001 1.851
-2.7490001 -4.2490001 1.901
-2.7490001 -4.2490001 1.951
-2.7490001 -4.2490001 2.0009999
-2.7490001 -4.2490001 2.0510001
-2.7490001 -4.2490001 2.1010001
-2.7490001 -4.2490001 2.151
-2.7490001 -4.2490001 2.201
-2.7490001 -4.2490001 2.2509999
-2.7490001 -4.2490001 2.3010001
-2.7490001 -4.2490001 2.3510001
-2.7490001 -4.2490001 2.401
-2.7490001 -4.2490001 2.451
-2.7490001 -4.1490002 0.001
-2.7490001 -4.1490002 0.050999999
-2.7490001 -4.1490002 0.101
-2.7490001 -4.1490002 0.15099999
-2.7490001 -4.1490002 0.20100001
-2.7490001 -4.1490002 0.25099999
-2.7490001 -4.1490002 0.301
-2.7490001 -4.1490002 0.35100001
-2.7490001 -4.1490002 0.40099999
-2.7490001 -4.1490002 0.45100001
-2.7490001 -4.1490002 0.50099999
-2.7490001 -4.1490002 0.551
-2.7490001 -4.1490002 0.60100001
-2.7490001 -4.1490002 0.65100002
-2.7490001 -4.1490002 0.70099998
-2.7490001 -4.1490002 0.75099999
-2.7490001 -4.1490002 0.801
-2.7490001 -4.1490002 0.85100001
-2.7490001 -4.1490002 0.90100002
-2.7490001 -4.1490002 0.95099998
-2.7490001 -4.1490002 1.001
-2.7490001 -4.1490002 1.051
-2.7490001 -4.1490002 1.101
-2.7490001 -4.1490002 1.151
-2.7490001 -4.0489998 0.001
-2.7490001 -4.0489998 0.050999999
-2.7490001 -4.0489998 0.101
-2.7490001 -4.0489998 0.15099999
-2.7490001 -4.0489998 0.20100001
-2.7490001 -4.0489998 0.25099999
-2.7490001 -4.0489998 0.301
-2.7490001 -4.0489998 0.35100001
-2.7490001 -4.0489998 0.40099999
-2.7490001 -4.0489998 0.45100001
-2.7490001 -4.0489998 0.50099999
-2.7490001 -4.0489998 0.551
-2.7490001 -4.0489998 0.60100001
-2.7490001 -4.0489998 0.65100002
-2.7490001 -4.0489998 0.70099998
-2.7490001 -4.0489998 0.75099999
-2.7490001 -4.0489998 0.801
-2.7490001 -4.0489998 0.85100001
-2.7490001 -4.0489998 0.90100002
-2.7490001 -4.0489998 0.95099998
-2.7490001 -4.0489998 1.001
-2.7490001 -4.0489998 1.051
-2.7490001 -4.0489998 1.101
-2.7490001 -4.0489998 1.151
-2.7490001 -4.0489998 1.201
-2.7490001 -4.0489998 1.251
-2.7490001 -4.0489998 1.301
-2.7490001 -4.0489998 1.351
-2.7490001 -4.0489998 1.401
-2.7490001 -4.0489998 1.451
-2.7490001 -4.0489998 1.501
-2.7490001 -4.0489998 1.551
-2.7490001 -4.0489998 1.601
-2.7490001 -4.0489998 1.651
-2.7490001 -4.0489998 1.701
-2.7490001 -4.0489998 1.751
-2.7490001 -4.0489998 1.801
-2.7490001 -4.0489998 1.851
-2.7490001 -4.0489998 1.901
-2.7490001 -4.0489998 1.951
-2.7490001 -4.0489998 2.0009999
-2.7490001 -4.0489998 2.0510001
-2.7490001 -4.0489998 2.1010001
-2.7490001 -4.0489998 2.151
-2.7490001 -4.0489998 2.201
-2.7490001 -4.0489998 2.2509999
-2.7490001 -4.0489998 2.3010001
-2.7490001 -4.0489998 2.3510001
-2.7490001 -4.0489998 2.401
-2.7490001 -4.0489998 2.451
-2.7490001 -4.0489998 2.5009999
-2.7490001 -4.0489998 2.5510001
-2.6489999 -4.6490002 0.001
-2.6489999 -4.6490002 0.050999999
-2.6489999 -4.6490002 0.101
-2.6489999 -4.6490002 0.15099999
-2.6489999 -4.6490002 0.20100001
-2.6489999 -4.6490002 0.25099999
-2.6489999 -4.6490002 0.301
-2.6489999 -4.6490002 0.35100001
-2.6489999 -4.6490002 0.40099999
-2.6489999 -4.6490002 0.45100001
-2.6489999 -4.6490002 0.50099999
-2.6489999 -4.6490002 0.551
-2.6489999 -4.6490002 0.60100001
-2.6489999 -4.6490002 0.65100002
-2.6489999 -4.6490002 0.70099998
-2.6489999 -4.6490002 0.75099999
-2.6489999 -4.6490002 0.801
-2.6489999 -4.6490002 0.85100001
-2.6489999 -4.6490002 0.90100002
-2.6489999 -4.6490002 0.95099998
-2.6489999 -4.6490002 1.001
-2.6489999 -4.6490002 1.051
-2.6489999 -4.6490002 1.101
-2.6489999 -4.6490002 1.151
-2.6489999 -4.6490002 1.201
-2.6489999 -4.6490002 1.251
-2.6489999 -4.6490002 1.301
-2.6489999 -4.6490002 1.351
-2.6489999 -4.5489998 0.001
-2.6489999 -4.5489998 0.050999999
-2.6489999 -4.5489998 0.101
-2.6489999 -4.5489998 0.15099999
-2.6489999 -4.5489998 0.20100001
-2.6489999 -4.5489998 0.25099999
-2.6489999 -4.5489998 0.301
-2.6489999 -4.5489998 0.35100001
-2.6489999 -4.5489998 0.40099999
-2.6489999 -4.5489998 0.45100001
-2.6489999 -4.5489998 0.50099999
-2.6489999 -4.5489998 0.551
-2.6489999 -4.5489998 0.60100001
-2.6489999 -4.5489998 0.65100002
-2.6489999 -4.5489998 0.70099998
-2.6489999 -4.5489998 0.75099999
-2.6489999 -4.5489998 0.801
-2.6489999 -4.5489998 0.85100001
-2.6489999 -4.5489998 0.90100002
-2.6489999 -4.5489998 0.95099998
-2.6489999 -4.5489998 1.001
-2.6489999 -4.5489998 1.051
-2.6489999 -4.5489998 1.101
-2.6489999 -4.5489998 1.151
-2.6489999 -4.5489998 1.201
-2.6489999 -4.5489998 1.251
-2.6489999 -4.5489998 1.301
-2.6489999 -4.5489998 1.351
-2.6489999 -4.5489998 1.401
-2.6489999 -4.5489998 1.451
-2.6489999 -4.5489998 1.501
-2.6489999 -4.5489998 1.551
-2.6489999 -4.5489998 1.601
-2.6489999 -4.5489998 1.651
-2.6489999 -4.5489998 1.701
-2.6489999 -4.5489998 1.751
-2.6489999 -4.5489998 1.801
-2.6489999 -4.5489998 1.851
-2.6489999 -4.5489998 1.901
-2.6489999 -4.5489998 1.951
-2.6489999 -4.5489998 2.0009999
-2.6489999 -4.5489998 2.0510001
-2.6489999 -4.5489998 2.1010001
-2.6489999 -4.5489998 2.151
-2.6489999 -4.5489998 2.201
-2.6489999 -4.5489998 2.2509999
-2.6489999 -4.5489998 2.3010001
-2.6489999 -4.5489998 2.3510001
-2.6489999 -4.5489998 2.401
-2.6489999 -4.5489998 2.451
-2.6489999 -4.4489999 0.001
-2.6489999 -4.4489999 0.050999999
-2.6489999 -4.4489999 0.101
-2.6489999 -4.4489999 0.15099999
-2.6489999 -4.4489999 0.20100001
-2.6489999 -4.4489999 0.25099999
-2.6489999 -4.4489999 0.301
-2.6489999 -4.4489999 0.35100001
-2.6489999 -4.4489999 0.40099999
-2.6489999 -4.4489999 0.45100001
-2.6489999 -4.4489999 0.50099999
-2.6489999 -4.4489999 0.551
-2.6489999 -4.4489999 0.60100001
-2.6489999 -4.4489999 0.65100002
-2.6489999 -4.4489999 0.70099998
-2.6489999 -4.4489999 0.75099999
-2.6489999 -4.4489999 0.801
-2.6489999 -4.4489999 0.85100001
-2.6489999 -4.4489999 0.90100002
-2.6489999 -4.4489999 0.95099998
-2.6489999 -4.4489999 1.001
-2.6489999 -4.4489999 1.051
-2.6489999 -4.4489999 1.101
-2.6489999 -4.4489999 1.151
-2.6489999 -4.4489999 1.201
-2.6489999 -4.4489999 1.251
-2.6489999 -4.4489999 1.301
-2.6489999 -4.4489999 1.351
-2.6489999 -4.4489999 1.401
-2.6489999 -4.4489999 1.451
-2.6489999 -4.4489999 1.501
-2.6489999 -4.4489999 1.551
-2.6489999 -4.4489999 1.601
-2.6489999 -4.4489999 1.651
-2.6489999 -4.4489999 1.701
-2.6489999 -4.4489999 1.751
-2.6489999 -4.4489999 1.801
-2.6489999 -4.4489999 1.851
-2.6489999 -4.4489999 1.901
-2.6489999 -4.4489999 1.951
-2.6489999 -4.4489999 2.0009999
-2.6489999 -4.4489999 2.0510001
-2.6489999 -4.4489999 2.1010001
-2.6489999 -4.4489999 2.151
-2.6489999 -4.4489999 2.201
-2.6489999 -4.4489999 2.2509999
-2.6489999 -4.4489999 2.3010001
-2.6489999 -4.4489999 2.3510001
-2.6489999 -4.4489999 2.401
-2.6489999 -4.4489999 2.451
-2.6489999 -4.349 0.001
-2.6489999 -4.349 0.050999999
-2.6489999 -4.349 0.101
-2.6489999 -4.349 0.15099999
-2.6489999 -4.349 0.20100001
-2.6489999 -4.349 0.25099999
-2.6489999 -4.349 0.301
-2.6489999 -4.349 0.35100001
-2.6489999 -4.349 0.40099999
-2.6489999 -4.349 0.45100001
-2.6489999 -4.349 0.50099999
-2.6489999 -4.349 0.551
-2.6489999 -4.349 0.60100001
-2.6489999 -4.349 0.65100002
-2.6489999 -4.349 0.70099998
-2.6489999 -4.349 0.75099999
-2.6489999 -4.349 0.801
-2.6489999 -4.349 0.85100001
-2.6489999 -4.349 0.90100002
-2.6489999 -4.349 0.95099998
-2.6489999 -4.349 1.001
-2.6489999 -4.349 1.051
-2.6489999 -4.349 1.101
-2.6489999 -4.349 1.151
-2.6489999 -4.349 1.201
-2.6489999 -4.349 1.251
-2.6489999 -4.349 1.301
-2.6489999 -4.349 1.351
-2.6489999 -4.349 1.401
-2.6489999 -4.349 1.451
-2.6489999 -4.349 1.501
-2.6489999 -4.349 1.551
-2.6489999 -4.349 1.601
-2.6489999 -4.349 1.651
-2.6489999 -4.349 1.701
-2.6489999 -4.349 1.751
-2.6489999 -4.349 1.801
-2.6489999 -4.349 1.851
-2.6489999 -4.349 1.901
-2.6489999 -4.349 1.951
-2.6489999 -4.2490001 0.001
-2.6489999 -4.2490001 0.050999999
-2.6489999 -4.2490001 0.101
-2.6489999 -4.2490001 0.15099999
-2.6489999 -4.2490001 0.20100001
-2.6489999 -4.2490001 0.25099999
-2.6489999 -4.2490001 0.301
-2.6489999 -4.2490001 0.35100001
-2.6489999 -4.2490001 0.40099999
-2.6489999 -4.2490001 0.45100001
-2.6489999 -4.2490001 0.50099999
-2.6489999 -4.2490001 0.551
-2.6489999 -4.2490001 0.60100001
-2.6489999 -4.2490001 0.65100002
-2.6489999 -4.2490001 0.70099998
-2.6489999 -4.2490001 0.75099999
-2.6489999 -4.2490001 0.801
-2.6489999 -4.2490001 0.85100001
-2.6489999 -4.2490001 0.90100002
-2.6489999 -4.2490001 0.95099998
-2.6489999 -4.2490001 1.001
-2.6489999 -4.2490001 1.051
-2.6489999 -4.2490001 1.101
-2.6489999 -4.2490001 1.151
-2.6489999 -4.2490001 1.201
-2.6489999 -4.2490001 1.251
-2.6489999 -4.2490001 1.301
-2.6489999 -4.2490001 1.351
-2.6489999 -4.2490001 1.401
-2.6489999 -4.2490001 1.451
-2.6489999 -4.2490001 1.501
-2.6489999 -4.2490001 1.551
-2.6489999 -4.2490001 1.601
-2.6489999 -4.2490001 1.651
-2.6489999 -4.2490001 1.701
-2.6489999 -4.2490001 1.751
-2.6489999 -4.2490001 1.801
-2.6489999 -4.2490001 1.851
-2.6489999 -4.2490001 1.901
-2.6489999 -4.2490001 1.951
-2.6489999 -4.2490001 2.0009999
-2.6489999 -4.2490001 2.0510001
-2.6489999 -4.2490001 2.1010001
-2.6489999 -4.2490001 2.151
-2.6489999 -4.1490002 0.001
-2.6489999 -4.1490002 0.050999999
-2.6489999 -4.1490002 0.101
-2.6489999 -4.1490002 0.15099999
-2.6489999 -4.1490002 0.20100001
-2.6489999 -4.1490002 0.25099999
-2.6489999 -4.1490002 0.301
-2.6489999 -4.1490002 0.35100001
-2.6489999 -4.1490002 0.40099999
-2.6489999 -4.1490002 0.45100001
-2.6489999 -4.1490002 0.50099999
-2.6489999 -4.1490002 0.551
-2.6489999 -4.1490002 0.60100001
-2.6489999 -4.1490002 0.65100002
-2.6489999 -4.1490002 0.70099998
-2.6489999 -4.1490002 0.75099999
-2.6489999 -4.1490002 0.801
-2.6489999 -4.1490002 0.85100001
-2.6489999 -4.1490002 0.90100002
-2.6489999 -4.1490002 0.95099998
-2.6489999 -4.1490002 1.001
-2.6489999 -4.1490002 1.051
-2.6489999 -4.1490002 1.101
-2.6489999 -4.1490002 1.151
-2.6489999 -4.1490002 1.201
-2.6489999 -4.1490002 1.251
-2.6489999 -4.1490002 1.301
-2.6489999 -4.1490002 1.351
-2.6489999 -4.1490002 1.401
-2.6489999 -4.1490002 1.451
-2.6489999 -4.1490002 1.501
-2.6489999 -4.1490002 1.551
-2.6489999 -4.1490002 1.601
-2.6489999 -4.1490002 1.651
-2.6489999 -4.1490002 1.701
-2.6489999 -4.1490002 1.751
-2.6489999 -4.1490002 1.801
-2.6489999 -4.1490002 1.851
-2.6489999 -4.1490002 1.901
-2.6489999 -4.1490002 1.951
-2.6489999 -4.1490002 2.0009999
-2.6489999 -4.1490002 2.0510001
-2.6489999 -4.1490002 2.1010001
-2.6489999 -4.1490002 2.151
-2.6489999 -4.1490002 2.201
-2.6489999 -4.1490002 2.2509999
-2.6489999 -4.0489998 0.001
-2.6489999 -4.0489998 0.050999999
-2.6489999 -4.0489998 0.101
-2.6489999 -4.0489998 0.15099999
-2.6489999 -4.0489998 0.20100001
-2.6489999 -4.0489998 0.25099999
-2.6489999 -4.0489998 0.301
-2.6489999 -4.0489998 0.35100001
-2.6489999 -4.0489998 0.40099999
-2.6489999 -4.0489998 0.45100001
-2.6489999 -4.0489998 0.50099999
-2.6489999 -4.0489998 0.551
-2.6489999 -4.0489998 0.60100001
-2.6489999 -4.0489998 0.65100002
-2.6489999 -4.0489998 0.70099998
-2.6489999 -4.0489998 0.75099999
-2.6489999 -4.0489998 0.801
-2.6489999 -4.0489998 0.85100001
-2.6489999 -4.0489998 0.90100002
-2.6489999 -4.0489998 0.95099998
-2.6489999 -4.0489998 1.001
-2.6489999 -4.0489998 1.051
-2.6489999 -4.0489998 1.101
-2.6489999 -4.0489998 1.151
-2.6489999 -4.0489998 1.201
-2.6489999 -4.0489998 1.251
-2.6489999 -4.0489998 1.301
-2.6489999 -4.0489998 1.351
-2.6489999 -4.0489998 1.401
-2.6489999 -4.0489998 1.451
-2.6489999 -4.0489998 1.501
-2.6489999 -4.0489998 1.551
-2.6489999 -4.0489998 1.601
-2.6489999 -4.0489998 1.651
-2.6489999 -4.0489998 1.701
-2.6489999 -4.0489998 1.751
-2.549 -4.6490002 0.001
-2.549 -4.6490002 0.050999999
-2.549 -4.6490002 0.101
-2.549 -4.6490002 0.15099999
-2.549 -4.6490002 0.20100001
-2.549 -4.6490002 0.25099999
-2.549 -4.6490002 0.301
-2.549 -4.6490002 0.35100001
-2.549 -4.6490002 0.40099999
-2.549 -4.6490002 0.45100001
-2.549 -4.6490002 0.50099999
-2.549 -4.6490002 0.551
-2.549 -4.6490002 0.60100001
-2.549 -4.6490002 0.65100002
-2.549 -4.6490002 0.70099998
-2.549 -4.6490002 0.75099999
-2.549 -4.6490002 0.801
-2.549 -4.6490002 0.85100001
-2.549 -4.6490002 0.90100002
-2.549 -4.6490002 0.95099998
-2.549 -4.6490002 1.001
-2.549 -4.6490002 1.051
-2.549 -4.6490002 1.101
-2.549 -4.6490002 1.151
-2.549 -4.5489998 0.001
-2.549 -4.5489998 0.050999999
-2.549 -4.5489998 0.101
-2.549 -4.5489998 0.15099999
-2.549 -4.5489998 0.20100001
-2.549 -4.5489998 0.25099999
-2.549 -4.5489998 0.301
-2.549 -4.5489998 0.35100001
-2.549 -4.5489998 0.40099999
-2.549 -4.5489998 0.45100001
-2.549 -4.5489998 0.50099999
-2.549 -4.5489998 0.551
-2.549 -4.5489998 0.60100001
-2.549 -4.5489998 0.65100002
-2.549 -4.5489998 0.70099998
-2.549 -4.5489998 0.75099999
-2.549 -4.5489998 0.801
-2.549 -4.5489998 0.85100001
-2.549 -4.5489998 0.90100002
-2.549 -4.5489998 0.95099998
-2.549 -4.5489998 1.001
-2.549 -4.5489998 1.051
-2.549 -4.5489998 1.101
-2.549 -4.5489998 1.151
-2.549 -4.5489998 1.201
-2.549 -4.5489998 1.251
-2.549 -4.5489998 1.301
-2.549 -4.5489998 1.351
-2.549 -4.5489998 1.401
-2.549 -4.5489998 1.451
-2.549 -4.5489998 1.501
-2.549 -4.5489998 1.551
-2.549 -4.4489999 0.001
-2.549 -4.4489999 0.050999999
-2.549 -4.4489999 0.101
-2.549 -4.4489999 0.15099999
-2.549 -4.4489999 0.20100001
-2.549 -4.4489999 0.25099999
-2.549 -4.4489999 0.301
-2.549 -4.4489999 0.35100001
-2.549 -4.4489999 0.40099999
-2.549 -4.4489999 0.45100001
-2.549 -4.4489999 0.50099999
-2.549 -4.4489999 0.551
-2.549 -4.4489999 0.60100001
-2.549 -4.4489999 0.65100002
-2.549 -4.4489999 0.70099998
-2.549 -4.4489999 0.75099999
-2.549 -4.4489999 0.801
-2.549 -4.4489999 0.85100001
-2.549 -4.4489999 0.90100002
-2.549 -4.4489999 0.95099998
-2.549 -4.4489999 1.001
-2.549 -4.4489999 1.051
-2.549 -4.4489999 1.101
-2.549 -4.4489999 1.151
-2.549 -4.4489999 1.201
-2.549 -4.4489999 1.251
-2.549 -4.4489999 1.301
-2.549 -4.4489999 1.351
-2.549 -4.4489999 1.401
-2.549 -4.4489999 1.451
-2.549 -4.4489999 1.501
-2.549 -4.4489999 1.551
-2.549 -4.4489999 1.601
-2.549 -4.4489999 1.651
-2.549 -4.4489999 1.701
-2.549 -4.4489999 1.751
-2.549 -4.4489999 1.801
-2.549 -4.4489999 1.851
-2.549 -4.4489999 1.901
-2.549 -4.4489999 1.951
-2.549 -4.4489999 2.0009999
-2.549 -4.4489999 2.0510001
-2.549 -4.4489999 2.1010001
-2.549 -4.4489999 2.151
-2.549 -4.4489999 2.201
-2.549 -4.4489999 2.2509999
-2.549 -4.349 0.001
-2.549 -4.349 0.050999999
-2.549 -4.349 0.101
-2.549 -4.349 0.15099999
-2.549 -4.349 0.20100001
-2.549 -4.349 0.25099999
-2.549 -4.349 0.301
-2.549 -4.349 0.35100001
-2.549 -4.349 0.40099999
-2.549 -4.349 0.45100001
-2.549 -4.349 0.50099999
-2.549 -4.349 0.551
-2.549 -4.349 0.60100001
-2.549 -4.349 0.65100002
-2.549 -4.349 0.70099998
-2.549 -4.349 0.75099999
-2.549 -4.349 0.801
-2.549 -4.349 0.85100001
-2.549 -4.349 0.90100002
-2.549 -4.349 0.95099998
-2.549 -4.349 1.001
-2.549 -4.349 1.051
-2.549 -4.349 1.101
-2.549 -4.349 1.151
-2.549 -4.349 1.201
-2.549 -4.349 1.251
-2.549 -4.349 1.301
-2.549 -4.349 1.351
-2.549 -4.349 1.401
-2.549 -4.349 1.451
-2.549 -4.349 1.501
-2.549 -4.349 1.551
-2.549 -4.349 1.601
-2.549 -4.349 1.651
-2.549 -4.349 1.701
-2.549 -4.349 1.751
-2.549 -4.349 1.801
-2.549 -4.349 1.851
-2.549 -4.349 1.901
-2.549 -4.349 1.951
-2.549 -4.349 2.0009999
-2.549 -4.349 2.0510001
-2.549 -4.349 2.1010001
-2.549 -4.349 2.151
-2.549 -4.2490001 0.001
-2.549 -4.2490001 0.050999999
-2.549 -4.2490001 0.101
-2.549 -4.2490001 0.15099999
-2.549 -4.2490001 0.20100001
-2.549 -4.2490001 0.25099999
-2.549 -4.2490001 0.301
-2.549 -4.2490001 0.35100001
-2.549 -4.2490001 0.40099999
-2.549 -4.2490001 0.45100001
-2.549 -4.2490001 0.50099999
-2.549 -4.2490001 0.551
-2.549 -4.2490001 0.60100001
-2.549 -4.2490001 0.65100002
-2.549 -4.2490001 0.70099998
-2.549 -4.2490001 0.75099999
-2.549 -4.2490001 0.801
-2.549 -4.2490001 0.85100001
-2.549 -4.2490001 0.90100002
-2.549 -4.2490001 0.95099998
-2.549 -4.2490001 1.001
-2.549 -4.2490001 1.051
-2.549 -4.2490001 1.101
-2.549 -4.2490001 1.151
-2.549 -4.2490001 1.201
-2.549 -4.2490001 1.251
-2.549 -4.2490001 1.301
-2.549 -4.2490001 1.351
-2.549 -4.2490001 1.401
-2.549 -4.2490001 1.451
-2.549 -4.2490001 1.501
-2.549 -4.2490001 1.551
-2.549 -4.2490001 1.601
-2.549 -4.2490001 1.651
-2.549 -4.2490001 1.701
-2.549 -4.2490001 1.751
-2.549 -4.2490001 1.801
-2.549 -4.2490001 1.851
-2.549 -4.2490001 1.901
-2.549 -4.2490001 1.951
-2.549 -4.2490001 2.0009999
-2.549 -4.2490001 2.0510001
-2.549 -4.1490002 0.001
-2.549 -4.1490002 0.050999999
-2.549 -4.1490002 0.101
-2.549 -4.1490002 0.15099999
-2.549 -4.1490002 0.20100001
-2.549 -4.1490002 0.25099999
-2.549 -4.1490002 0.301
-2.549 -4.1490002 0.35100001
-2.549 -4.1490002 0.40099999
-2.549 -4.1490002 0.45100001
-2.549 -4.1490002 0.50099999
-2.549 -4.1490002 0.551
-2.549 -4.1490002 0.60100001
-2.549 -4.1490002 0.65100002
-2.549 -4.1490002 0.70099998
-2.549 -4.1490002 0.75099999
-2.549 -4.1490002 0.801
-2.549 -4.1490002 0.85100001
-2.549 -4.1490002 0.90100002
-2.549 -4.1490002 0.95099998
-2.549 -4.1490002 1.001
-2.549 -4.1490002 1.051
-2.549 -4.1490002 1.101
-2.549 -4.1490002 1.151
-2.549 -4.1490002 1.201
-2.549 -4.1490002 1.251
-2.549 -4.1490002 1.301
-2.549 -4.1490002 1.351
-2.549 -4.1490002 1.401
-2.549 -4.1490002 1.451
-2.549 -4.1490002 1.501
-2.549 -4.1490002 1.551
-2.549 -4.1490002 1.601
-2.549 -4.1490002 1.651
-2.549 -4.1490002 1.701
-2.549 -4.1490002 1.751
-2.549 -4.1490002 1.801
-2.549 -4.1490002 1.851
-2.549 -4.1490002 1.901
-2.549 -4.1490002 1.951
-2.549 -4.0489998 0.001
-2.549 -4.0489998 0.050999999
-2.549 -4.0489998 0.101
-2.549 -4.0489998 0.15099999
-2.549 -4.0489998 0.20100001
-2.549 -4.0489998 0.25099999
-2.549 -4.0489998 0.301
-2.549 -4.0489998 0.35100001
-2.549 -4.0489998 0.40099999
-2.549 -4.0489998 0.45100001
-2.549 -4.0489998 0.50099999
-2.549 -4.0489998 0.551
-2.549 -4.0489998 0.60100001
-2.549 -4.0489998 0.65100002
-2.549 -4.0489998 0.70099998
-2.549 -4.0489998 0.75099999
-2.549 -4.0489998 0.801
-2.549 -4.0489998 0.85100001
-2.549 -4.0489998 0.90100002
-2.549 -4.0489998 0.95099998
-2.549 -4.0489998 1.001
-2.549 -4.0489998 1.051
-2.549 -4.0489998 1.101
-2.549 -4.0489998 1.151
-2.549 -4.0489998 1.201
-2.549 -4.0489998 1.251
-2.549 -4.0489998 1.301
-2.549 -4.0489998 1.351
-2.4489999 -4.6490002 0.001
-2.4489999 -4.6490002 0.050999999
-2.4489999 -4.6490002 0.101
-2.4489999 -4.6490002 0.15099999
-2.4489999 -4.6490002 0.20100001
-2.4489999 -4.6490002 0.25099999
-2.4489999 -4.6490002 0.301
-2.4489999 -4.6490002 0.35100001
-2.4489999 -4.6490002 0.40099999
-2.4489999 -4.6490002 0.45100001
-2.4489999 -4.6490002 0.50099999
-2.4489999 -4.6490002 0.551
-2.4489999 -4.6490002 0.60100001
-2.4489999 -4.6490002 0.65100002
-2.4489999 -4.6490002 0.70099998
-2.4489999 -4.6490002 0.75099999
-2.4489999 -4.6490002 0.801
-2.4489999 -4.6490002 0.85100001
-2.4489999 -4.6490002 0.90100002
-2.4489999 -4.6490002 0.95099998
-2.4489999 -4.6490002 1.001
-2.4489999 -4.6490002 1.051
-2.4489999 -4.6490002 1.101
-2.4489999 -4.6490002 1.151
-2.4489999 -4.6490002 1.201
-2.4489999 -4.6490002 1.251
-2.4489999 -4.6490002 1.301
-2.4489999 -4.6490002 1.351
-2.4489999 -4.6490002 1.401
-2.4489999 -4.6490002 1.451
-2.4489999 -4.6490002 1.501
-2.4489999 -4.6490002 1.551
-2.4489999 -4.6490002 1.601
-2.4489999 -4.6490002 1.651
-2.4489999 -4.6490002 1.701
-2.4489999 -4.6490002 1.751
-2.4489999 -4.6490002 1.801
-2.4489999 -4.6490002 1.851
-2.4489999 -4.6490002 1.901
-2.4489999 -4.6490002 1.951
-2.4489999 -4.6490002 2.0009999
-2.4489999 -4.6490002 2.0510001
-2.4489999 -4.6490002 2.1010001
-2.4489999 -4.6490002 2.151
-2.4489999 -4.6490002 2.201
-2.4489999 -4.6490002 2.2509999
-2.4489999 -4.6490002 2.3010001
-2.4489999 -4.6490002 2.3510001
-2.4489999 -4.6490002 2.401
-2.4489999 -4.6490002 2.451
-2.4489999 -4.6490002 2.5009999
-2.4489999 -4.6490002 2.5510001
-2.4489999 -4.6490002 2.6010001
-2.4489999 -4.6490002 2.651
-2.4489999 -4.6490002 2.701
-2.4489999 -4.6490002 2.7509999
-2.4489999 -4.5489998 0.001
-2.4489999 -4.5489998 0.050999999
-2.4489999 -4.5489998 0.101
-2.4489999 -4.5489998 0.15099999
-2.4489999 -4.5489998 0.20100001
-2.4489999 -4.5489998 0.25099999
-2.4489999 -4.5489998 0.301
-2.4489999 -4.5489998 0.35100001
-2.4489999 -4.5489998 0.40099999
-2.4489999 -4.5489998 0.45100001
-2.4489999 -4.5489998 0.50099999
-2.4489999 -4.5489998 0.551
-2.4489999 -4.5489998 0.60100001
-2.4489999 -4.5489998 0.65100002
-2.4489999 -4.5489998 0.70099998
-2.4489999 -4.5489998 0.75099999
-2.4489999 -4.5489998 0.801
-2.4489999 -4.5489998 0.85100001
-2.4489999 -4.5489998 0.90100002
-2.4489999 -4.5489998 0.95099998
-2.4489999 -4.5489998 1.001
-2.4489999 -4.5489998 1.051
-2.4489999 -4.5489998 1.101
-2.4489999 -4.5489998 1.151
-2.4489999 -4.5489998 1.201
-2.4489999 -4.5489998 1.251
-2.4489999 -4.5489998 1.301
-2.4489999 -4.5489998 1.351
-2.4489999 -4.5489998 1.401
-2.4489999 -4.5489998 1.451
-2.4489999 -4.5489998 1.501
-2.4489999 -4.5489998 1.551
-2.4489999 -4.5489998 1.601
-2.4489999 -4.5489998 1.651
-2.4489999 -4.5489998 1.701
-2.4489999 -4.5489998 1.751
-2.4489999 -4.5489998 1.801
-2.4489999 -4.5489998 1.851
-2.4489999 -4.5489998 1.901
-2.4489999 -4.5489998 1.951
-2.4489999 -4.5489998 2.0009999
-2.4489999 -4.5489998 2.0510001
-2.4489999 -4.4489999 0.001
-2.4489999 -4.4489999 0.050999999
-2.4489999 -4.4489999 0.101
-2.4489999 -4.4489999 0.15099999
-2.4489999 -4.4489999 0.20100001
-2.4489999 -4.4489999 0.25099999
-2.4489999 -4.4489999 0.301
-2.4489999 -4.4489999 0.35100001
-2.4489999 -4.4489999 0.40099999
-2.4489999 -4.4489999 0.45100001
-2.4489999 -4.4489999 0.50099999
-2.4489999 -4.4489999 0.551
-2.4489999 -4.4489999 0.60100001
-2.4489999 -4.4489999 0.65100002
-2.4489999 -4.4489999 0.70099998
-2.4489999 -4.4489999 0.75099999
-2.4489999 -4.4489999 0.801
-2.4489999 -4.4489999 0.85100001
-2.4489999 -4.4489999 0.90100002
-2.4489999 -4.4489999 0.95099998
-2.4489999 -4.4489999 1.001
-2.4489999 -4.4489999 1.051
-2.4489999 -4.4489999 1.101
-2.4489999 -4.4489999 1.151
-2.4489999 -4.4489999 1.201
-2.4489999 -4.4489999 1.251
-2.4489999 -4.349 0.001
-2.4489999 -4.349 0.050999999
-2.4489999 -4.349 0.101
-2.4489999 -4.349 0.15099999
-2.4489999 -4.349 0.20100001
-2.4489999 -4.349 0.25099999
-2.4489999 -4.349 0.301
-2.4489999 -4.349 0.35100001
-2.4489999 -4.349 0.40099999
-2.4489999 -4.349 0.45100001
-2.4489999 -4.349 0.50099999
-2.4489999 -4.349 0.551
-2.4489999 -4.349 0.60100001
-2.4489999 -4.349 0.65100002
-2.4489999 -4.349 0.70099998
-2.4489999 -4.349 0.75099999
-2.4489999 -4.349 0.801
-2.4489999 -4.349 0.85100001
-2.4489999 -4.349 0.90100002
-2.4489999 -4.349 0.95099998
-2.4489999 -4.349 1.001
-2.4489999 -4.349 1.051
-2.4489999 -4.349 1.101
-2.4489999 -4.349 1.151
-2.4489999 -4.349 1.201
-2.4489999 -4.349 1.251
-2.4489999 -4.349 1.301
-2.4489999 -4.349 1.351
-2.4489999 -4.349 1.401
-2.4489999 -4.349 1.451
-2.4489999 -4.349 1.501
-2.4489999 -4.349 1.551
-2.4489999 -4.349 1.601
-2.4489999 -4.349 1.651
-2.4489999 -4.349 1.701
-2.4489999 -4.349 1.751
-2.4489999 -4.349 1.801
-2.4489999 -4.349 1.851
-2.4489999 -4.349 1.901
-2.4489999 -4.349 1.951
-2.4489999 -4.349 2.0009999
-2.4489999 -4.349 2.0510001
-2.4489999 -4.349 2.1010001
-2.4489999 -4.349 2.151
-2.4489999 -4.349 2.201
-2.4489999 -4.349 2.2509999
-2.4489999 -4.349 2.3010001
-2.4489999 -4.349 2.3510001
-2.4489999 -4.349 2.401
-2.4489999 -4.349 2.451
-2.4489999 -4.2490001 0.001
-2.4489999 -4.2490001 0.050999999
-2.4489999 -4.2490001 0.101
-2.4489999 -4.2490001 0.15099999
-2.4489999 -4.2490001 0.20100001
-2.4489999 -4.2490001 0.25099999
-2.4489999 -4.2490001 0.301
-2.4489999 -4.2490001 0.35100001
-2.4489999 -4.2490001 0.40099999
-2.4489999 -4.2490001 0.45100001
-2.4489999 -4.2490001 0.50099999
-2.4489999 -4.2490001 0.551
-2.4489999 -4.2490001 0.60100001
-2.4489999 -4.2490001 0.65100002
-2.4489999 -4.2490001 0.70099998
-2.4489999 -4.2490001 0.75099999
-2.4489999 -4.2490001 0.801
-2.4489999 -4.2490001 0.85100001
-2.4489999 -4.2490001 0.90100002
-2.4489999 -4.2490001 0.95099998
-2.4489999 -4.2490001 1.001
-2.4489999 -4.2490001 1.051
-2.4489999 -4.2490001 1.101
-2.4489999 -4.2490001 1.151
-2.4489999 -4.1490002 0.001
-2.4489999 -4.1490002 0.050999999
-2.4489999 -4.1490002 0.101
-2.4489999 -4.1490002 0.15099999
-2.4489999 -4.1490002 0.20100001
-2.4489999 -4.1490002 0.25099999
-2.4489999 -4.1490002 0.301
-2.4489999 -4.1490002 0.35100001
-2.4489999 -4.1490002 0.40099999
-2.4489999 -4.1490002 0.45100001
-2.4489999 -4.1490002 0.50099999
-2.4489999 -4.1490002 0.551
-2.4489999 -4.1490002 0.60100001
-2.4489999 -4.1490002 0.65100002
-2.4489999 -4.1490002 0.70099998
-2.4489999 -4.1490002 0.75099999
-2.4489999 -4.1490002 0.801
-2.4489999 -4.1490002 0.85100001
-2.4489999 -4.1490002 0.90100002
-2.4489999 -4.1490002 0.95099998
-2.4489999 -4.1490002 1.001
-2.4489999 -4.1490002 1.051
-2.4489999 -4.1490002 1.101
-2.4489999 -4.1490002 1.151
-2.4489999 -4.1490002 1.201
-2.4489999 -4.1490002 1.251
-2.4489999 -4.1490002 1.301
-2.4489999 -4.1490002 1.351
-2.4489999 -4.1490002 1.401
-2.4489999 -4.1490002 1.451
-2.4489999 -4.1490002 1.501
-2.4489999 -4.1490002 1.551
-2.4489999 -4.1490002 1.601
-2.4489999 -4.1490002 1.651
-2.4489999 -4.1490002 1.701
-2.4489999 -4.1490002 1.751
-2.4489999 -4.1490002 1.801
-2.4489999 -4.1490002 1.851
-2.4489999 -4.1490002 1.901
-2.4489999 -4.1490002 1.951
-2.4489999 -4.1490002 2.0009999
-2.4489999 -4.1490002 2.0510001
-2.4489999 -4.1490002 2.1010001
-2.4489999 -4.1490002 2.151
-2.4489999 -4.1490002 2.201
-2.4489999 -4.1490002 2.2509999
-2.4489999 -4.1490002 2.3010001
-2.4489999 -4.1490002 2.3510001
-2.4489999 -4.1490002 2.401
-2.4489999 -4.1490002 2.451
-2.4489999 -4.0489998 0.001
-2.4489999 -4.0489998 0.050999999
-2.4489999 -4.0489998 0.101
-2.4489999 -4.0489998 0.15099999
-2.4489999 -4.0489998 0.20100001
-2.4489999 -4.0489998 0.25099999
-2.4489999 -4.0489998 0.301
-2.4489999 -4.0489998 0.35100001
-2.4489999 -4.0489998 0.40099999
-2.4489999 -4.0489998 0.45100001
-2.4489999 -4.0489998 0.50099999
-2.4489999 -4.0489998 0.551
-2.4489999 -4.0489998 0.60100001
-2.4489999 -4.0489998 0.65100002
-2.4489999 -4.0489998 0.70099998
-2.4489999 -4.0489998 0.75099999
-2.4489999 -4.0489998 0.801
-2.4489999 -4.0489998 0.85100001
-2.4489999 -4.0489998 0.90100002
-2.4489999 -4.0489998 0.95099998
-2.4489999 -4.0489998 1.001
-2.4489999 -4.0489998 1.051
-2.4489999 -4.0489998 1.101
-2.4489999 -4.0489998 1.151
-2.349 -4.6490002 0.001
-2.349 -4.6490002 0.050999999
-2.349 -4.6490002 0.101
-2.349 -4.6490002 0.15099999
-2.349 -4.6490002 0.20100001
-2.349 -4.6490002 0.25099999
-2.349 -4.6490002 0.301
-2.349 -4.6490002 0.35100001
-2.349 -4.6490002 0.40099999
-2.349 -4.6490002 0.45100001
-2.349 -4.6490002 0.50099999
-2.349 -4.6490002 0.551
-2.349 -4.6490002 0.60100001
-2.349 -4.6490002 0.65100002
-2.349 -4.6490002 0.70099998
-2.349 -4.6490002 0.75099999
-2.349 -4.6490002 0.801
-2.349 -4.6490002 0.85100001
-2.349 -4.6490002 0.90100002
-2.349 -4.6490002 0.95099998
-2.349 -4.6490002 1.001
-2.349 -4.6490002 1.051
-2.349 -4.6490002 1.101
-2.349 -4.6490002 1.151
-2.349 -4.6490002 1.201
-2.349 -4.6490002 1.251
-2.349 -4.6490002 1.301
-2.349 -4.6490002 1.351
-2.349 -4.6490002 1.401
-2.349 -4.6490002 1.451
-2.349 -4.6490002 1.501
-2.349 -4.6490002 1.551
-2.349 -4.6490002 1.601
-2.349 -4.6490002 1.651
-2.349 -4.6490002 1.701
-2.349 -4.6490002 1.751
-2.349 -4.6490002 1.801
-2.349 -4.6490002 1.851
-2.349 -4.5489998 0.001
-2.349 -4.5489998 0.050999999
-2.349 -4.5489998 0.101
-2.349 -4.5489998 0.15099999
-2.349 -4.5489998 0.20100001
-2.349 -4.5489998 0.25099999
-2.349 -4.5489998 0.301
-2.349 -4.5489998 0.35100001
-2.349 -4.5489998 0.40099999
-2.349 -4.5489998 0.45100001
-2.349 -4.5489998 0.50099999
-2.349 -4.5489998 0.551
-2.349 -4.5489998 0.60100001
-2.349 -4.5489998 0.65100002
-2.349 -4.5489998 0.70099998
-2.349 -4.5489998 0.75099999
-2.349 -4.5489998 0.801
-2.349 -4.5489998 0.85100001
-2.349 -4.5489998 0.90100002
-2.349 -4.5489998 0.95099998
-2.349 -4.5489998 1.001
-2.349 -4.5489998 1.051
-2.349 -4.5489998 1.101
-2.349 -4.5489998 1.151
-2.349 -4.5489998 1.201
-2.349 -4.5489998 1.251
-2.349 -4.5489998 1.301
-2.349 -4.5489998 1.351
-2.349 -4.5489998 1.401
-2.349 -4.5489998 1.451
